115.093 71.6614 567.579
594.944 754.045 335.917
108.863 653.925 943.92
521.716 217.577 806.309
48.284 433.666 501.23
714.774 703.234 219.102
476.33 18.8491 165.817
727.324 357.063 180.717
66.2115 153.183 209.296
927.619 759.761 434.885
691.699 826.421 189.679
659.144 702.304 108.737
742.755 984.1 920.701
551.627 234.1 30.8027
833.126 964.266 617.85
150.629 537.327 832.221
45.6865 361.608 794.64
548.315 470.293 259.555
261.634 284.292 960.424
431.905 124.9 735.023
249.358 709.471 334.427
722.397 484.244 358.335
955.571 74.7347 36.461
448.568 434.029 456.797
445.877 830.214 930.852
610.729 487.494 620.052
438.536 139.998 286.133
144.038 534.114 653.549
846.257 608.638 586.769
673.299 831.862 856.887
221.69 50.8718 893.608
700.627 347.684 191.118
614.504 159.995 672.102
15.5338 317.138 888.056
416.243 992.055 890.113
311.565 338.277 52.6844
170.506 863.752 99.6092
114.743 800.198 356.027
468.883 946.505 543.052
680.804 106.037 716.854
169.007 699.965 655.225
982.374 372.373 410.58
415.625 101.208 77.6281
905.123 856.545 703.478
157.124 742.041 623.723
620.201 696.575 75.6495
452.767 774.83 959.299
364.902 396.424 659.574
841.516 206.904 663.22
719.298 892.977 832.481
326.53 335.53 155.056
903.732 134.819 867.925
836.462 334.209 216.014
109.601 207.077 748.524
541.311 527.649 258.613
601.269 1.6979 964.302
793.329 788.13 340.122
913.465 333.81 272.491
415.966 865.43 577.518
472.472 837.734 139.176
730.636 715.48 458.518
575.136 84.1443 605.463
580.078 730.048 633.069
892.835 331.569 940.872
238.911 53.5124 113.929
854.945 462.882 649.967
575.352 766.931 381.415
598.694 226.83 384.285
524.612 796.394 459.741
705.75 137.62 363.596
2.47559 583.831 498.574
662.113 506.228 837.094
596.172 954.89 356.481
557.41 462.159 658.845
86.8222 71.4404 237.432
327.428 554.296 732.635
115.425 117.922 102.089
77.3392 746.621 185.526
937.368 705.935 357.185
778.198 747.783 988.163
636.95 693.326 251.088
901.228 475.771 467.212
549.168 455.946 275.114
58.6765 975.732 459.263
560.97 801.242 23.6379
12.6774 499.618 75.8254
347.633 292.509 632.298
142.586 115.504 259.992
457.686 332.402 840.148
473.246 364.464 218.543
50.8758 475.185 371.014
963.687 717.803 458.874
152.73 101.779 846.611
295.493 292.98 494.172
78.7421 467.543 568.032
360.556 312.413 680.123
977.307 711.289 628.305
77.9076 743.829 84.2775
413.359 327.592 382.803
628.933 897.89 114.035
